6.931711798095680540e-05,-8.189087697139042950e-04,-4.846649566057324894e-03,1.000000000000000000e+00
1.136735927797796292e-04,-8.045176180907512515e-04,-4.884402419932636769e-03,1.000000000000000000e+00
1.764177249472710792e-04,-7.712051756896665501e-04,-4.936059199014688863e-03,1.000000000000000000e+00
1.652468174535676420e-04,-7.609461484369804555e-04,-4.929417641731806757e-03,1.000000000000000000e+00
1.242203202009101116e-04,-7.476646355251486634e-04,-4.896755156009187371e-03,1.000000000000000000e+00
3.754027509975598023e-05,-7.286584742540449730e-04,-4.826764672133337583e-03,1.000000000000000000e+00
7.219427306708709694e-04,-7.988425073965857047e-04,-5.394789827824131821e-03,1.000000000000000000e+00
7.383941424396144298e-04,-7.987123510486575156e-04,-5.408868658343706642e-03,1.000000000000000000e+00
7.271663936854288850e-04,-7.872891874772282306e-04,-5.400984458538045374e-03,1.000000000000000000e+00
7.043298798334547478e-04,-7.499605134993474632e-04,-5.380465070095076519e-03,1.000000000000000000e+00
6.625194841075735582e-04,-7.439846851890352273e-04,-5.347639801014351588e-03,1.000000000000000000e+00
7.260845838391822909e-04,-7.500469075300800377e-04,-5.400440677761412372e-03,1.000000000000000000e+00
-2.114683343896514076e-05,-6.145695865423718863e-04,-4.790098026007755423e-03,1.000000000000000000e+00
1.047438571127761223e-04,-6.284017966739927291e-04,-4.890623782572908577e-03,1.000000000000000000e+00
3.870111556798742501e-04,-5.269651276636962449e-04,-5.129549483473101572e-03,1.000000000000000000e+00
2.337417288878146176e-04,-4.820463991269864786e-04,-5.005564248039275424e-03,1.000000000000000000e+00
7.142462381927871954e-04,-5.158213654725022712e-04,-5.393253567035362871e-03,1.000000000000000000e+00
3.616361742115157423e-04,-3.972100070830019911e-04,-5.109561119201555188e-03,1.000000000000000000e+00
4.064342947778599503e-04,-4.015163714463090231e-04,-5.143672303697641862e-03,1.000000000000000000e+00
2.799826967966269797e-04,-3.647506290263906564e-04,-5.044369082734196166e-03,1.000000000000000000e+00
5.027291837383413182e-04,-3.892056930706567987e-04,-5.220757315966873674e-03,1.000000000000000000e+00
2.609166816649534132e-04,-3.379268033755319554e-04,-5.027137251665194859e-03,1.000000000000000000e+00
3.735275774062370440e-04,-3.511088016906560127e-04,-5.117404182352096841e-03,1.000000000000000000e+00
2.234544321921679510e-04,-2.873989413264841156e-04,-4.994015689874961930e-03,1.000000000000000000e+00
3.898799252792440511e-04,-3.057013345929070571e-04,-5.127100875564454159e-03,1.000000000000000000e+00
4.091101918215433683e-04,-3.077177903122872878e-04,-5.142842975629967339e-03,1.000000000000000000e+00
3.449523295763559389e-04,-2.716034007057195089e-04,-5.092465341585149935e-03,1.000000000000000000e+00
5.171700427763307193e-04,-2.909713624486237431e-04,-5.229245718760626091e-03,1.000000000000000000e+00
4.414519189475240180e-04,-2.589787932619725883e-04,-5.166580114245694980e-03,1.000000000000000000e+00
1.106953401499268958e-06,-1.012735902476498873e-05,-4.805607718122576096e-03,1.000000000000000000e+00
1.683858065902382392e-04,-2.947529778998660027e-05,-4.937475194377372902e-03,1.000000000000000000e+00
9.396496101400684078e-05,-8.604687514543443833e-06,-4.879497113739307904e-03,1.000000000000000000e+00
2.890029442235535274e-05,-4.093475776722107415e-07,-4.829964498541135416e-03,1.000000000000000000e+00
4.848949340137492466e-04,-4.536644274467433640e-05,-5.192180336131111025e-03,1.000000000000000000e+00
3.835581155994756191e-05,1.229591212799140456e-05,-4.836887659654182624e-03,1.000000000000000000e+00
1.506924459496704880e-04,2.292409846529862429e-05,-4.927029918079481666e-03,1.000000000000000000e+00
4.353096001947997736e-04,1.016104458290546037e-05,-5.153261750713860126e-03,1.000000000000000000e+00
4.111033768658281062e-04,3.899954884280817344e-05,-5.131612368176710279e-03,1.000000000000000000e+00
3.179759289679137603e-05,9.037822574551567228e-05,-4.836440251942390571e-03,1.000000000000000000e+00
4.882322876132785003e-05,9.912818942801184072e-05,-4.846661558655812087e-03,1.000000000000000000e+00
9.899263949026775023e-05,1.062538707284034695e-04,-4.886533718918522132e-03,1.000000000000000000e+00
4.758493645130102475e-04,6.767858818004122360e-05,-5.183420015887282156e-03,1.000000000000000000e+00
1.552383478931623100e-04,1.115402695590458535e-04,-4.930882371386683706e-03,1.000000000000000000e+00
9.412901478755339023e-05,1.315184766042771321e-04,-4.881009847660395390e-03,1.000000000000000000e+00
4.854841655595627657e-05,1.375436969397611725e-04,-4.847547431492666911e-03,1.000000000000000000e+00
1.863697784317016432e-04,1.200370529468802408e-04,-4.953860770507925726e-03,1.000000000000000000e+00
1.088352817675641122e-04,1.303484080246098060e-04,-4.893821822082590825e-03,1.000000000000000000e+00
1.349339705323334315e-04,1.379056841824840391e-04,-4.914441279343996147e-03,1.000000000000000000e+00
1.959572506288346290e-05,1.661999335006829890e-04,-4.827430188972082516e-03,1.000000000000000000e+00
8.932210542433485334e-05,1.822445324647154385e-04,-4.880583015389092748e-03,1.000000000000000000e+00
1.917017344907126486e-04,1.933279771903034750e-04,-4.961285182791784487e-03,1.000000000000000000e+00
1.287343372942716189e-04,3.170104285158045483e-04,-4.929842724479265026e-03,1.000000000000000000e+00
5.760335620305843908e-04,2.795396388939358381e-04,-5.294300845896810111e-03,1.000000000000000000e+00
7.106338295259549903e-04,7.810519262702873052e-04,-5.909253470699998671e-03,1.000000000000000000e+00
-3.592730930804625684e-04,9.629696100641413911e-04,-4.997945096723572893e-03,1.000000000000000000e+00
7.840645621259452989e-04,-9.989733541926216348e-04,-5.415653952251736972e-03,1.000000000000000000e+00
-2.942446030438277478e-04,-8.633964662395672432e-04,-4.568060725859655023e-03,1.000000000000000000e+00
7.559379094642051542e-04,5.886771830760736306e-04,-5.797109195125108722e-03,1.000000000000000000e+00
5.674694022773119637e-04,4.658258996279515131e-04,-5.411160624073518485e-03,1.000000000000000000e+00
3.515078712416519913e-04,4.957560179929515042e-04,-5.233209664843464955e-03,1.000000000000000000e+00
3.212024416188749109e-04,5.023151518024152875e-04,-5.211024001159171581e-03,1.000000000000000000e+00
1.002886321642335439e-04,5.344197786097530135e-04,-5.031081885288316360e-03,1.000000000000000000e+00
7.267677440774030612e-05,5.413063278777480343e-04,-5.009223917111055649e-03,1.000000000000000000e+00
-1.507886070898476925e-04,5.720737902369978914e-04,-4.827089222069726876e-03,1.000000000000000000e+00
-1.953719315189204138e-04,3.296370338439853689e-04,-4.670884900962263275e-03,1.000000000000000000e+00
-2.251313998104123397e-04,-1.714423047191218524e-05,-4.644761318961920099e-03,1.000000000000000000e+00
4.894162120223679831e-04,6.172040080815319662e-04,-5.541074058830731085e-03,1.000000000000000000e+00
2.792883063663909016e-04,6.525716918955409796e-04,-5.360750414079431397e-03,1.000000000000000000e+00
2.490893847415846470e-04,6.581391360223694427e-04,-5.333749238775446939e-03,1.000000000000000000e+00
2.960571887208773736e-05,6.931988950699667250e-04,-5.151820134373713209e-03,1.000000000000000000e+00
-3.408839111226654557e-06,7.009297586272272102e-04,-5.128517179592353113e-03,1.000000000000000000e+00
-2.143520822779709865e-04,7.367375860376932034e-04,-4.936031873045461024e-03,1.000000000000000000e+00
5.804168459030235655e-04,-1.247005077786482257e-04,-5.273212497927240450e-03,1.000000000000000000e+00
6.083337954922711944e-04,2.138434441037339229e-04,-5.303243882847546824e-03,1.000000000000000000e+00
